ply
format ascii 1.0
element vertex 84
property float x
property float y
property float z
property uchar red
property uchar green
property uchar blue
end_header
63.0 0.0 10598.5 132 131 126
64.0 -2.0 10133.2 141 127 114
65.0 -14.0 10986.25 143 130 111
156.0 -1.0 7082.9 148 141 148
190.0 -1.0 7082.9 156 165 224
169.0 0.0 6281.5503 158 156 178
247.0 -20.0 9383.55 123 127 164
238.0 -10.0 9797.15 142 153 199
254.0 -16.0 10184.9 127 142 197
254.0 -11.0 10598.5 112 127 170
246.0 -4.0 10960.4 105 102 111
249.0 -4.0 11425.7 100 100 112
249.0 -1.0 11710.05 98 95 112
251.0 0.0 12149.5 100 99 115
252.0 -3.0 12511.4 97 99 111
175.0 -1.0 6565.9 164 166 205
254.0 -2.0 12847.45 96 99 118
189.0 -4.0 7470.65 160 168 217
243.0 -22.0 9021.65 126 133 151
233.0 -17.0 7780.85 144 157 210
66.0 -28.0 11322.3 134 121 104
233.0 -19.0 8711.45 141 155 204
231.0 -21.0 8246.15 146 158 210
67.0 -39.0 11735.9 137 130 111
108.0 -39.0 16414.75 188 206 206
102.0 -44.0 16802.5 150 142 129
117.0 -31.0 15716.8 148 134 121
108.0 -37.0 16001.15 152 140 126
108.0 -50.0 17216.1 82 120 143
65.0 -45.0 12149.5 128 132 118
110.0 -59.0 17578.0 77 119 141
166.0 -55.0 16027.0 159 176 228
164.0 -48.0 16440.6 133 122 130
131.0 -53.0 17939.9 222 241 237
159.0 -49.0 16802.5 79 122 200
69.0 -67.0 12511.4 140 125 102
134.0 -54.0 18198.4 222 243 236
169.0 -61.0 15768.5 122 110 122
159.0 -65.0 17164.4 52 72 123
251.0 -69.0 18327.65 40 39 45
69.0 -78.0 12899.15 141 127 101
250.0 -82.0 17991.6 70 71 63
236.0 -80.0 13674.65 108 104 119
234.0 -79.0 13286.9 115 110 130
68.0 -86.0 13286.9 140 131 102
236.0 -84.0 13959.0 109 104 101
77.0 -95.0 13622.95 128 114 87
67.0 -102.0 13700.5 100 108 97
124.0 -98.0 16802.5 151 173 171
72.0 -189.0 16440.6 132 129 114
125.0 -97.0 17190.25 153 179 176
69.0 -188.0 16001.15 41 42 44
66.0 -191.0 15639.25 37 38 40
158.0 -99.0 13286.9 97 86 94
254.0 -102.0 13312.75 37 44 52
226.0 -131.0 11037.95 73 73 75
227.0 -135.0 11296.45 65 68 75
236.0 -100.0 11761.75 100 92 73
235.0 -102.0 12046.101 102 91 73
243.0 -108.0 17164.4 78 69 60
235.0 -111.0 12537.25 101 93 72
235.0 -113.0 12899.15 102 94 73
254.0 -113.0 13700.5 28 37 44
245.0 -184.0 17733.1 16 20 23
240.0 -188.0 14062.4 15 23 26
244.0 -185.0 14476.0 17 22 26
244.0 -177.0 14837.9 19 18 23
238.0 -104.0 10650.2 94 81 62
64.0 -119.0 14088.25 103 111 88
254.0 -183.0 15277.351 16 21 25
238.0 -103.0 10365.851 95 83 67
192.0 -190.0 16880.05 36 28 26
64.0 -184.0 14476.0 25 31 31
65.0 -189.0 14863.75 35 36 38
67.0 -183.0 15277.351 33 35 34
249.0 -182.0 15639.25 20 23 32
228.0 -164.0 16027.0 74 67 49
170.0 -190.0 16466.451 33 38 34
248.0 -190.0 7444.8003 20 28 30
243.0 -184.0 17784.8 21 21 21
253.0 -184.0 7134.6 20 25 28
254.0 -188.0 6695.15 26 32 30
248.0 -187.0 7910.1 16 20 23
225.0 -191.0 8142.75 14 19 23
