ply
		format ascii 1.0
		element vertex 35513
		property float x
		property float y
		property float z
		property uchar red
		property uchar green
		property uchar blue
		end_header
-1.056739 -0.087544 3.669647 141 130 102
-1.052199 -0.087544 3.669647 139 127 101
-1.046004 -0.087406 3.663850 138 126 102
-1.041472 -0.087406 3.663850 134 122 96
-1.036939 -0.087406 3.663850 130 121 92
-1.030778 -0.087268 3.658071 133 122 94
-1.024636 -0.087131 3.652310 137 123 97
-1.023341 -0.087406 3.663850 136 122 96
-1.018808 -0.087406 3.663850 140 126 100
-1.017490 -0.087683 3.675463 139 125 99
-1.014551 -0.087822 3.681297 134 120 94
-1.009997 -0.087822 3.681297 130 116 90
-1.005443 -0.087822 3.681297 130 116 90
-1.000888 -0.087822 3.681297 132 117 94
-0.997918 -0.087962 3.687150 127 112 89
-0.993356 -0.087962 3.687150 130 115 92
-0.988795 -0.087962 3.687150 134 119 96
-0.984233 -0.087962 3.687150 132 118 91
-0.979672 -0.087962 3.687150 126 111 88
-0.976663 -0.088102 3.693021 133 119 92
-0.972094 -0.088102 3.693021 135 122 90
-0.967525 -0.088102 3.693021 128 114 88
-0.962957 -0.088102 3.693021 126 112 86
-0.958388 -0.088102 3.693021 130 118 92
-0.953819 -0.088102 3.693021 129 117 91
-0.950764 -0.088242 3.698911 135 123 97
-0.946188 -0.088242 3.698911 133 122 94
-0.943116 -0.088383 3.704819 137 123 96
-0.940035 -0.088525 3.710747 132 120 94
-0.935444 -0.088525 3.710747 128 117 95
-0.930853 -0.088525 3.710747 127 112 89
-0.927747 -0.088666 3.716694 129 113 90
-0.924631 -0.088809 3.722660 131 115 92
-0.920025 -0.088809 3.722660 127 113 87
-0.916891 -0.088952 3.728645 128 116 94
-0.912279 -0.088952 3.728645 124 116 97
-0.907666 -0.088952 3.728645 122 115 99
-0.901603 -0.088809 3.722660 106 106 98
-0.896998 -0.088809 3.722660 95 94 99
-0.892392 -0.088809 3.722660 72 79 87
-0.889214 -0.088952 3.728645 56 64 77
-0.884601 -0.088952 3.728645 44 51 69
-0.879988 -0.088952 3.728645 36 43 59
-0.876785 -0.089095 3.734649 31 40 49
-0.873572 -0.089239 3.740673 28 35 43
-0.868944 -0.089239 3.740673 27 32 36
-0.864316 -0.089239 3.740673 27 31 34
-0.861077 -0.089383 3.746716 26 30 33
-0.857828 -0.089527 3.752778 25 29 32
-0.853185 -0.089527 3.752778 22 27 30
-0.849918 -0.089672 3.758861 21 26 29
-0.843900 -0.089527 3.752778 24 28 29
-0.839257 -0.089527 3.752778 26 30 29
-0.837324 -0.089818 3.764963 26 30 29
-0.834020 -0.089964 3.771085 25 29 28
-0.832061 -0.090258 3.783388 21 25 24
-0.830089 -0.090553 3.795773 19 23 24
-0.828103 -0.090850 3.808238 20 24 27
-0.823392 -0.090850 3.808238 21 24 29
-0.818681 -0.090850 3.808238 19 26 36
-0.813969 -0.090850 3.808238 20 26 38
-0.810589 -0.091000 3.814502 20 28 41
-0.805870 -0.091000 3.814502 20 26 38
-0.806457 -0.091602 3.839763 21 27 39
-0.801706 -0.091602 3.839763 20 26 42
-0.796956 -0.091602 3.839763 20 30 39
-0.788290 -0.091150 3.820786 21 30 37
-0.782275 -0.091000 3.814502 24 32 35
-0.777555 -0.091000 3.814502 23 32 39
-0.770303 -0.090701 3.801995 22 30 41
-0.763097 -0.090405 3.789570 18 26 37
-0.758409 -0.090405 3.789570 17 25 28
-0.754954 -0.090553 3.795773 19 24 28
-0.752722 -0.090850 3.808238 19 24 28
-0.748011 -0.090850 3.808238 21 26 30
-0.743299 -0.090850 3.808238 19 24 27
-0.737377 -0.090701 3.801995 19 24 27
-0.731475 -0.090553 3.795773 21 26 29
-0.726779 -0.090553 3.795773 17 26 25
-0.722083 -0.090553 3.795773 19 27 29
-0.716215 -0.090405 3.789570 19 27 30
-0.711526 -0.090405 3.789570 19 25 25
-0.705685 -0.090258 3.783388 18 24 24
-0.701005 -0.090258 3.783388 19 25 25
-0.702050 -0.091000 3.814502 16 24 26
-0.703113 -0.091754 3.846131 17 22 25
-0.701847 -0.092213 3.865362 18 23 26
-0.694749 -0.091907 3.852520 22 26 25
-0.687698 -0.091602 3.839763 24 28 27
-0.682948 -0.091602 3.839763 24 28 27
-0.678198 -0.091602 3.839763 22 26 27
-0.681344 -0.092677 3.884786 19 25 25
-0.676538 -0.092677 3.884786 24 30 30
-0.675124 -0.093145 3.904406 26 32 30
-0.670294 -0.093145 3.904406 18 24 24
-0.665464 -0.093145 3.904406 19 27 29
-0.660633 -0.093145 3.904406 24 32 34
-0.655803 -0.093145 3.904406 18 26 28
-0.650973 -0.093145 3.904406 19 24 27
-0.646142 -0.093145 3.904406 17 21 22
-0.640234 -0.092988 3.897844 18 22 23
-0.634346 -0.092832 3.891304 18 22 23
-0.629532 -0.092832 3.891304 16 20 21
-0.628939 -0.093459 3.917596 16 20 19
-0.635908 -0.095229 3.991768 16 20 21
-0.633149 -0.095558 4.005556 16 20 23
-0.623884 -0.094902 3.978074 19 23 26
-0.623238 -0.095558 4.005556 21 22 24
-0.635233 -0.100596 4.216758 19 23 26
-0.625468 -0.099870 4.186312 21 25 28
-0.620289 -0.099870 4.186312 21 27 27
-0.614001 -0.099690 4.178770 26 27 29
-0.492568 -0.080653 3.380783 26 24 27
-0.486966 -0.080418 3.370955 28 24 25
-0.484203 -0.080653 3.380783 29 23 25
-0.480020 -0.080653 3.380783 23 21 24
-0.538655 -0.091300 3.827091 17 22 25
-0.533920 -0.091300 3.827091 24 32 35
-0.529185 -0.091300 3.827091 24 31 37
-0.522726 -0.091000 3.814502 19 24 30
-0.519716 -0.091300 3.827091 18 25 31
-0.524502 -0.092988 3.897844 20 27 35
-1.108278 -0.198308 8.312606 17 25 28
-0.517467 -0.093459 3.917596 18 23 27
-0.513488 -0.093617 3.924225 16 21 25
-1.515390 -0.093676 4.141459 25 31 31
-1.483771 -0.092033 4.068802 28 32 33
-1.458270 -0.090759 4.012486 31 32 34
-1.418937 -0.088613 3.917596 35 33 36
-1.385996 -0.086852 3.839763 37 38 40
-1.349956 -0.084885 3.752778 39 40 42
-1.338814 -0.084475 3.734649 47 48 52
-1.327779 -0.084068 3.716694 107 113 113
-1.314753 -0.083533 3.693021 135 128 109
-1.308101 -0.083400 3.687150 135 130 111
-1.301471 -0.083268 3.681297 137 131 109
-1.296916 -0.083268 3.681297 141 135 113
-1.290314 -0.083136 3.675463 138 132 110
-1.285767 -0.083136 3.675463 139 131 110
-1.281220 -0.083136 3.675463 144 137 111
-1.276673 -0.083136 3.675463 141 133 112
-1.270113 -0.083004 3.669647 137 130 104
-1.265573 -0.083004 3.669647 141 135 111
-1.263032 -0.083136 3.675463 148 143 121
-1.258485 -0.083136 3.675463 143 139 110
-1.251953 -0.083004 3.669647 141 135 113
-1.247414 -0.083004 3.669647 141 130 110
-1.235057 -0.082482 3.646568 138 130 109
-1.228614 -0.082353 3.640843 139 132 113
-1.224110 -0.082353 3.640843 146 140 118
-1.219605 -0.082353 3.640843 143 139 114
-1.215101 -0.082353 3.640843 142 131 109
-1.212500 -0.082482 3.646568 139 128 110
-1.207989 -0.082482 3.646568 144 140 115
-1.207274 -0.082742 3.658071 144 138 114
-1.210385 -0.083268 3.681297 136 129 103
-1.205831 -0.083268 3.681297 141 133 110
-1.201277 -0.083268 3.681297 144 133 113
-1.196722 -0.083268 3.681297 139 130 113
-1.192168 -0.083268 3.681297 138 132 110
-1.183855 -0.083004 3.669647 137 130 102
-1.181185 -0.083136 3.675463 138 130 107
-1.178505 -0.083268 3.681297 137 129 108
-1.173951 -0.083268 3.681297 137 131 105
-1.169397 -0.083268 3.681297 138 130 107
-1.164842 -0.083268 3.681297 139 126 109
-1.158449 -0.083136 3.675463 142 126 111
-1.152076 -0.083004 3.669647 139 128 108
-1.142115 -0.082612 3.652310 139 127 105
-1.135808 -0.082482 3.646568 140 128 102
-1.129521 -0.082353 3.640843 138 126 102
-1.123253 -0.082224 3.635136 139 127 103
-1.117005 -0.082095 3.629448 141 129 105
-1.112515 -0.082095 3.629448 138 126 104
-1.106294 -0.081967 3.623777 139 127 103
-1.101810 -0.081967 3.623777 141 129 105
-1.097327 -0.081967 3.623777 143 132 104
-1.092844 -0.081967 3.623777 148 137 109
-1.088361 -0.081967 3.623777 145 135 108
-1.083878 -0.081967 3.623777 141 129 103
-1.082779 -0.082224 3.635136 146 134 108
-1.079974 -0.082353 3.640843 147 136 108
-1.075470 -0.082353 3.640843 145 134 106
-1.070966 -0.082353 3.640843 144 134 107
-1.066461 -0.082353 3.640843 140 128 104
-1.061957 -0.082353 3.640843 140 129 101
-1.057453 -0.082353 3.640843 138 127 99
-1.052949 -0.082353 3.640843 140 128 104
-1.050093 -0.082482 3.646568 143 131 105
-1.047228 -0.082612 3.652310 139 128 100
-1.042710 -0.082612 3.652310 139 128 100
-1.038191 -0.082612 3.652310 136 125 97
-1.033673 -0.082612 3.652310 133 122 94
-1.027536 -0.082482 3.646568 135 123 97
-1.023025 -0.082482 3.646568 135 123 97
-1.018514 -0.082482 3.646568 135 123 97
-1.014002 -0.082482 3.646568 138 126 100
-1.009491 -0.082482 3.646568 138 126 100
-1.004980 -0.082482 3.646568 132 120 94
-1.003625 -0.082742 3.658071 129 117 91
-0.999099 -0.082742 3.658071 130 118 92
-0.994573 -0.082742 3.658071 129 115 89
-0.993181 -0.083004 3.669647 127 113 87
-0.990208 -0.083136 3.675463 128 113 92
-0.985661 -0.083136 3.675463 133 118 95
-0.982671 -0.083268 3.681297 129 115 88
-0.979672 -0.083400 3.687150 126 112 85
-0.975110 -0.083400 3.687150 131 117 90
-0.970549 -0.083400 3.687150 136 125 97
-0.967525 -0.083533 3.693021 128 116 90
-0.962957 -0.083533 3.693021 126 114 88
-0.958388 -0.083533 3.693021 126 114 88
-0.953819 -0.083533 3.693021 128 116 90
-0.950764 -0.083666 3.698911 135 124 96
-0.947700 -0.083800 3.704819 136 125 97
-0.944625 -0.083934 3.710747 134 123 95
-0.941541 -0.084068 3.716694 130 119 91
-0.936943 -0.084068 3.716694 133 122 94
-0.932345 -0.084068 3.716694 126 111 88
-0.929236 -0.084203 3.722660 118 110 89
-0.924631 -0.084203 3.722660 114 106 95
-0.921504 -0.084339 3.728645 103 99 100
-0.916891 -0.084339 3.728645 88 87 93
-0.913748 -0.084475 3.734649 67 73 85
-0.909127 -0.084475 3.734649 50 59 68
-0.903053 -0.084339 3.728645 41 48 64
-0.898440 -0.084339 3.728645 34 43 52
-0.893827 -0.084339 3.728645 30 37 43
-0.889214 -0.084339 3.728645 29 34 40
-0.886026 -0.084475 3.734649 28 31 36
-0.882827 -0.084611 3.740673 26 29 34
-0.878199 -0.084611 3.740673 26 30 31
-0.873572 -0.084611 3.740673 25 29 30
-0.868944 -0.084611 3.740673 24 28 29
-0.865713 -0.084747 3.746716 24 28 29
-0.862471 -0.084885 3.752778 27 31 30
-0.857828 -0.084885 3.752778 27 31 30
-0.854568 -0.085022 3.758861 21 33 33
-0.849918 -0.085022 3.758861 22 30 33
-0.845268 -0.085022 3.758861 21 27 27
-0.840617 -0.085022 3.758861 21 25 26
-0.837324 -0.085160 3.764963 21 25 26
-0.834020 -0.085299 3.771085 20 24 27
-0.830706 -0.085438 3.777226 19 23 24
-0.828732 -0.085717 3.789570 19 23 24
-0.826746 -0.085998 3.801995 25 26 28
-0.822042 -0.085998 3.801995 27 26 31
-0.816001 -0.085857 3.795773 26 30 31
-0.811305 -0.085857 3.795773 26 32 30
-0.807931 -0.085998 3.801995 25 30 34
-0.805870 -0.086281 3.814502 26 34 36
-0.801151 -0.086281 3.814502 29 39 41
-0.799060 -0.086565 3.827091 27 38 42
-0.794326 -0.086565 3.827091 28 35 41
-0.788290 -0.086423 3.820786 29 37 39
-0.782275 -0.086281 3.814502 29 37 40
-0.775006 -0.085998 3.801995 27 37 39
-0.769042 -0.085857 3.795773 27 36 43
-0.763097 -0.085717 3.789570 30 40 42
-0.758409 -0.085717 3.789570 25 34 33
-0.754954 -0.085857 3.795773 19 25 25
-0.751488 -0.085998 3.801995 20 26 26
-0.748011 -0.086139 3.808238 20 26 26
-0.743299 -0.086139 3.808238 20 26 26
-0.737377 -0.085998 3.801995 20 26 26
-0.731475 -0.085857 3.795773 20 26 26
-0.726779 -0.085857 3.795773 18 26 29
-0.720903 -0.085717 3.789570 19 24 28
-0.715046 -0.085577 3.783388 17 22 26
-0.709209 -0.085438 3.777226 15 24 23
-0.704536 -0.085438 3.777226 18 25 35
-0.699863 -0.085438 3.777226 18 24 38
-0.696324 -0.085577 3.783388 18 25 33
-0.703113 -0.086996 3.846131 16 26 28
-0.701847 -0.087431 3.865362 16 22 22
-0.694749 -0.087141 3.852520 17 21 20
-0.687698 -0.086852 3.839763 19 23 22
-0.682948 -0.086852 3.839763 20 24 23
-0.678198 -0.086852 3.839763 22 26 25
-0.677937 -0.087431 3.865362 19 25 23
-0.676538 -0.087871 3.884786 19 25 23
-0.672859 -0.088018 3.891304 17 23 23
-0.669167 -0.088166 3.897844 16 25 24
-0.664345 -0.088166 3.897844 21 29 31
-0.659523 -0.088166 3.897844 21 29 32
-0.654701 -0.088166 3.897844 19 24 27
-0.650973 -0.088314 3.904406 17 23 23
-0.646142 -0.088314 3.904406 18 22 23
-0.642394 -0.088463 3.910990 21 22 24
-0.638632 -0.088613 3.917596 18 22 23
-0.633785 -0.088613 3.917596 17 21 22
-0.628939 -0.088613 3.917596 18 22 21
-0.633727 -0.089981 3.978074 18 22 23
-0.631164 -0.095553 4.224439 25 23 26
-0.624800 -0.095379 4.216758 29 23 23
-0.619583 -0.095379 4.216758 29 25 26
-0.492568 -0.076470 3.380783 28 23 27
-0.486966 -0.076248 3.370955 21 21 21
-0.484203 -0.076470 3.380783 20 21 23
-0.480020 -0.076470 3.380783 16 20 23
-0.538655 -0.086565 3.827091 19 27 30
-0.532164 -0.086281 3.814502 19 27 30
-0.527445 -0.086281 3.814502 16 24 27
-0.521867 -0.086139 3.808238 16 24 27
-0.517156 -0.086139 3.808238 18 26 29
-1.173228 -0.197213 8.718861 19 27 30
-1.175702 -0.199463 8.818316 18 26 29
-1.109929 -0.190068 8.402960 20 25 28
-1.153883 -0.199463 8.818316 22 32 34
-1.509997 -0.088238 4.126720 26 32 32
-1.478583 -0.086695 4.054575 29 33 34
-1.453242 -0.085499 3.998650 33 34 36
-1.416545 -0.083625 3.910990 36 36 38
-1.383705 -0.081966 3.833416 33 39 39
-1.349956 -0.080242 3.752778 37 41 42
-1.338814 -0.079854 3.734649 48 52 53
-1.327779 -0.079470 3.716694 104 110 106
-1.312663 -0.078839 3.687150 137 131 109
-1.306025 -0.078713 3.681297 136 131 112
-1.297352 -0.078464 3.669647 137 130 111
-1.292812 -0.078464 3.669647 139 132 113
-1.286237 -0.078340 3.663850 138 131 112
-1.281705 -0.078340 3.663850 139 131 110
-1.277172 -0.078340 3.663850 141 134 108
-1.270632 -0.078217 3.658071 141 133 112
-1.264112 -0.078094 3.652310 139 130 113
-1.259594 -0.078094 3.652310 146 139 120
-1.257055 -0.078217 3.658071 147 143 118
-1.252530 -0.078217 3.658071 143 139 110
-1.246039 -0.078094 3.652310 140 134 112
-1.239568 -0.077971 3.646568 141 130 110
-1.233118 -0.077848 3.640843 137 130 104
-1.224768 -0.077605 3.629448 138 131 113
-1.222191 -0.077726 3.635136 144 137 118
-1.215788 -0.077605 3.629448 144 140 113
-1.213197 -0.077726 3.635136 141 135 113
-1.208699 -0.077726 3.635136 140 130 103
-1.204202 -0.077726 3.635136 147 139 116
-1.203478 -0.077971 3.646568 145 139 117
-1.202749 -0.078217 3.658071 137 128 111
-1.203920 -0.078589 3.675463 142 134 113
-1.199373 -0.078589 3.675463 142 138 113
-1.191051 -0.078340 3.663850 139 134 112
-1.184646 -0.078217 3.658071 141 133 110
-1.178262 -0.078094 3.652310 138 130 107
-1.175595 -0.078217 3.658071 139 130 115
-1.174776 -0.078464 3.669647 138 130 109
-1.172090 -0.078589 3.675463 142 131 111
-1.167543 -0.078589 3.675463 139 128 108
-1.157493 -0.078217 3.658071 137 126 106
-1.151152 -0.078094 3.652310 136 128 107
-1.146634 -0.078094 3.652310 138 127 107
-1.138529 -0.077848 3.640843 140 128 106
-1.132247 -0.077726 3.635136 141 129 103
-1.127750 -0.077726 3.635136 139 127 103
-1.121495 -0.077605 3.629448 139 127 103
-1.115260 -0.077484 3.623777 141 129 105
-1.110777 -0.077484 3.623777 138 126 104
-1.106294 -0.077484 3.623777 140 128 104
-1.101810 -0.077484 3.623777 142 130 106
-1.097327 -0.077484 3.623777 141 132 103
-1.092844 -0.077484 3.623777 144 137 108
-1.088361 -0.077484 3.623777 145 138 110
-1.085574 -0.077605 3.629448 145 135 110
-1.082779 -0.077726 3.635136 144 132 108
-1.079974 -0.077848 3.640843 146 134 108
-1.075470 -0.077848 3.640843 146 134 108
-1.070966 -0.077848 3.640843 144 134 107
-1.066461 -0.077848 3.640843 140 128 104
-1.058633 -0.077605 3.629448 138 127 99
-1.054143 -0.077605 3.629448 138 127 99
-1.049653 -0.077605 3.629448 139 127 103
-1.046801 -0.077726 3.635136 141 129 103
-1.043940 -0.077848 3.640843 139 128 100
-1.039436 -0.077848 3.640843 139 128 100
-1.034932 -0.077848 3.640843 142 131 103
-1.030428 -0.077848 3.640843 136 125 97
-1.024315 -0.077726 3.635136 132 120 94
-1.019818 -0.077726 3.635136 133 121 95
-1.015321 -0.077726 3.635136 132 121 93
-1.010824 -0.077726 3.635136 140 129 101
-1.006327 -0.077726 3.635136 138 127 99
-1.001829 -0.077726 3.635136 135 124 96
-1.000468 -0.077971 3.646568 129 117 91
-0.995957 -0.077971 3.646568 127 115 89
-0.991446 -0.077971 3.646568 131 117 91
-0.986935 -0.077971 3.646568 131 117 90
-0.983970 -0.078094 3.652310 129 114 91
-0.980997 -0.078217 3.658071 133 119 93
-0.981114 -0.078589 3.675463 131 117 91
-0.978117 -0.078713 3.681297 126 112 86
-0.975110 -0.078839 3.687150 130 116 90
-0.972094 -0.078964 3.693021 129 118 90
-0.969069 -0.079090 3.698911 124 112 86
-0.966033 -0.079216 3.704819 128 116 90
-0.961450 -0.079216 3.704819 125 111 85
-0.956866 -0.079216 3.704819 130 114 89
-0.953807 -0.079343 3.710747 136 120 94
-0.950737 -0.079470 3.716694 136 122 95
-0.946139 -0.079470 3.716694 125 119 93
-0.941541 -0.079470 3.716694 110 106 95
-0.938447 -0.079598 3.722660 102 101 97
-0.933841 -0.079598 3.722660 82 82 84
-0.930730 -0.079726 3.728645 67 69 84
-0.926117 -0.079726 3.728645 49 52 71
-0.922988 -0.079854 3.734649 39 45 57
-0.918368 -0.079854 3.734649 32 39 49
-0.913748 -0.079854 3.734649 32 35 40
-0.909127 -0.079854 3.734649 29 33 36
-0.903053 -0.079726 3.728645 29 33 36
-0.898440 -0.079726 3.728645 26 29 34
-0.893827 -0.079726 3.728645 29 30 34
-0.889214 -0.079726 3.728645 28 29 31
-0.884601 -0.079726 3.728645 30 30 30
-0.881406 -0.079854 3.734649 28 28 28
-0.876785 -0.079854 3.734649 28 32 31
-0.873572 -0.079983 3.740673 28 32 31
-0.868944 -0.079983 3.740673 29 33 32
-0.865713 -0.080112 3.746716 26 31 27
-0.861077 -0.080112 3.746716 23 27 28
-0.857828 -0.080242 3.752778 22 26 29
-0.854568 -0.080372 3.758861 23 25 24
-0.849918 -0.080372 3.758861 22 23 28
-0.843900 -0.080242 3.752778 20 23 28
-0.839257 -0.080242 3.752778 21 25 28
-0.834614 -0.080242 3.752778 21 24 29
-0.832666 -0.080502 3.764963 21 24 29
-0.829355 -0.080633 3.771085 19 29 31
-0.827380 -0.080896 3.783388 18 29 31
-0.825393 -0.081161 3.795773 21 31 33
-0.820697 -0.081161 3.795773 23 31 34
-0.816001 -0.081161 3.795773 21 29 31
-0.811305 -0.081161 3.795773 24 32 34
-0.806609 -0.081161 3.795773 25 34 39
-0.803228 -0.081294 3.801995 24 33 38
-0.801151 -0.081562 3.814502 26 31 35
-0.796432 -0.081562 3.814502 28 32 35
-0.793017 -0.081696 3.820786 32 34 29
-0.786994 -0.081562 3.814502 33 35 30
-0.782275 -0.081562 3.814502 33 34 36
-0.777555 -0.081562 3.814502 31 36 30
-0.770303 -0.081294 3.801995 26 30 31
-0.764346 -0.081161 3.795773 27 31 34
-0.758409 -0.081029 3.789570 23 29 29
-0.754954 -0.081161 3.795773 22 28 28
-0.751488 -0.081294 3.801995 21 27 27
-0.749241 -0.081562 3.814502 21 27 27
-0.744522 -0.081562 3.814502 20 26 26
-0.739803 -0.081562 3.814502 19 25 25
-0.735084 -0.081562 3.814502 27 33 33
-0.729165 -0.081428 3.808238 33 41 30
-0.722083 -0.081161 3.795773 22 27 21
-0.715046 -0.080896 3.783388 17 22 18
-0.709209 -0.080765 3.777226 25 36 22
-0.704536 -0.080765 3.777226 29 39 28
-0.699863 -0.080765 3.777226 18 27 26
-0.697462 -0.081029 3.789570 18 24 40
-0.710180 -0.083064 3.884786 17 25 48
-0.771659 -0.091494 4.278998 18 22 31
-0.689983 -0.082375 3.852520 18 21 26
-0.685217 -0.082375 3.852520 17 21 20
-0.682719 -0.082649 3.865362 25 30 23
-0.681344 -0.083064 3.884786 37 49 25
-0.677673 -0.083204 3.891304 31 42 26
-0.673990 -0.083344 3.897844 16 24 26
-0.669167 -0.083344 3.897844 20 29 28
-0.664345 -0.083344 3.897844 19 27 29
-0.659523 -0.083344 3.897844 19 27 30
-0.652508 -0.083064 3.884786 29 43 26
-0.649879 -0.083344 3.897844 41 56 33
-0.646142 -0.083484 3.904406 34 31 24
-0.635233 -0.090163 4.216758 27 23 24
-0.630017 -0.090163 4.216758 29 23 25
-0.624800 -0.090163 4.216758 22 22 24
-0.619583 -0.090163 4.216758 23 23 25
-0.607736 -0.089190 4.171254 17 18 22
-0.598272 -0.088553 4.141459 15 20 24
-0.593148 -0.088553 4.141459 17 22 26
-0.533920 -0.081831 3.827091 18 22 25
-0.527445 -0.081562 3.814502 20 24 27
-0.521867 -0.081428 3.808238 21 25 28
-0.517156 -0.081428 3.808238 18 26 29
-1.164473 -0.185035 8.653795 20 28 31
-1.175702 -0.188553 8.818316 24 32 35
-1.151655 -0.186427 8.718861 22 32 31
-1.162725 -0.189998 8.885889 37 44 50
-1.504643 -0.082837 4.112087 28 32 33
-1.468315 -0.081112 4.026418 31 35 36
-1.448248 -0.080275 3.984909 32 36 37
-1.411783 -0.078522 3.897844 35 36 38
-1.379146 -0.076969 3.820786 37 38 40
-1.349956 -0.075599 3.752778 42 42 42
-1.338814 -0.075234 3.734649 52 56 55
-1.325655 -0.074752 3.710747 99 105 105
-1.310579 -0.074159 3.681297 134 129 110
-1.301892 -0.073925 3.669647 134 131 112
-1.291223 -0.073575 3.652310 143 138 118
-1.286705 -0.073575 3.652310 140 135 113
-1.282186 -0.073575 3.652310 141 135 111
-1.277668 -0.073575 3.652310 137 130 111
-1.273149 -0.073575 3.652310 138 134 109
-1.266636 -0.073460 3.646568 138 136 113
-1.262125 -0.073460 3.646568 139 134 114
-1.257614 -0.073460 3.646568 145 140 120
-1.253102 -0.073460 3.646568 146 140 118
-1.248591 -0.073460 3.646568 142 138 109
-1.244080 -0.073460 3.646568 143 132 112
-1.237622 -0.073344 3.640843 140 129 109
-1.229259 -0.073115 3.629448 136 130 108
-1.222855 -0.073000 3.623777 137 130 111
-1.218372 -0.073000 3.623777 144 139 117
-1.213889 -0.073000 3.623777 142 137 115
-1.209405 -0.073000 3.623777 140 136 111
-1.204922 -0.073000 3.623777 141 135 109
-1.202318 -0.073115 3.629448 147 140 121
-1.199705 -0.073229 3.635136 141 134 115
-1.197084 -0.073344 3.640843 144 133 113
-1.196336 -0.073575 3.652310 145 139 117
-1.191818 -0.073575 3.652310 142 134 113
-1.185432 -0.073460 3.646568 142 136 114
-1.180921 -0.073460 3.646568 139 134 112
-1.176410 -0.073460 3.646568 137 130 111
-1.171898 -0.073460 3.646568 141 133 112
-1.169226 -0.073575 3.652310 144 133 111
-1.166544 -0.073691 3.658071 142 134 111
-1.160189 -0.073575 3.652310 140 132 109
-1.152042 -0.073344 3.640843 135 127 106
-1.147538 -0.073344 3.640843 138 130 111
-1.143033 -0.073344 3.640843 141 131 106
-1.136745 -0.073229 3.635136 141 129 105
-1.132247 -0.073229 3.635136 140 129 109
-1.125985 -0.073115 3.629448 139 127 105
-1.119743 -0.073000 3.623777 140 125 106
-1.115260 -0.073000 3.623777 140 127 110
-1.110777 -0.073000 3.623777 138 125 108
-1.106294 -0.073000 3.623777 140 127 108
-1.101810 -0.073000 3.623777 141 130 108
-1.097327 -0.073000 3.623777 140 133 105
-1.092844 -0.073000 3.623777 145 133 107
-1.090064 -0.073115 3.629448 147 135 109
-1.085574 -0.073115 3.629448 145 138 109
-1.082779 -0.073229 3.635136 143 136 107
-1.078281 -0.073229 3.635136 146 137 108
-1.075470 -0.073344 3.640843 146 135 107
-1.069287 -0.073229 3.635136 143 133 106
-1.063123 -0.073115 3.629448 141 129 103
-1.056979 -0.073000 3.623777 140 128 104
-1.052496 -0.073000 3.623777 137 125 99
-1.048013 -0.073000 3.623777 134 124 97
-1.043530 -0.073000 3.623777 142 135 107
-1.040673 -0.073115 3.629448 141 132 103
-1.036183 -0.073115 3.629448 142 128 101
-1.033310 -0.073229 3.635136 140 129 101
-1.028812 -0.073229 3.635136 137 127 100
-1.022712 -0.073115 3.629448 129 119 92
-1.016631 -0.073000 3.623777 131 119 93
-1.012148 -0.073000 3.623777 130 118 94
-1.007665 -0.073000 3.623777 136 124 100
-1.004752 -0.073115 3.629448 138 126 100
-1.000262 -0.073115 3.629448 135 124 96
-0.997332 -0.073229 3.635136 129 117 91
-0.992835 -0.073229 3.635136 127 113 86
-0.989889 -0.073344 3.640843 135 119 93
-0.985385 -0.073344 3.640843 128 116 90
-0.982423 -0.073460 3.646568 127 113 87
-0.979452 -0.073575 3.652310 131 117 90
-0.976471 -0.073691 3.658071 139 125 98
-0.978117 -0.074159 3.681297 130 115 92
-0.976663 -0.074395 3.693021 129 115 88
-0.975200 -0.074633 3.704819 133 122 90
-0.970617 -0.074633 3.704819 125 114 92
-0.967579 -0.074752 3.710747 121 112 95
-0.962988 -0.074752 3.710747 113 106 87
-0.958397 -0.074752 3.710747 108 104 93
-0.955335 -0.074872 3.716694 91 95 96
-0.950737 -0.074872 3.716694 72 81 88
-0.947658 -0.074992 3.722660 53 65 77
-0.943052 -0.074992 3.722660 43 51 64
-0.939956 -0.075113 3.728645 37 43 57
-0.935343 -0.075113 3.728645 30 37 47
-0.932229 -0.075234 3.734649 31 36 39
-0.927608 -0.075234 3.734649 32 36 35
-0.924477 -0.075355 3.740673 31 35 34
-0.918368 -0.075234 3.734649 30 34 33
-0.913748 -0.075234 3.734649 29 33 32
-0.907666 -0.075113 3.728645 27 33 29
-0.903053 -0.075113 3.728645 31 35 34
-0.896998 -0.074992 3.722660 34 36 35
-0.892392 -0.074992 3.722660 32 32 32
-0.886364 -0.074872 3.716694 34 34 34
-0.881766 -0.074872 3.716694 32 32 32
-0.877168 -0.074872 3.716694 33 33 33
-0.872570 -0.074872 3.716694 27 31 34
-0.869365 -0.074992 3.722660 25 28 33
-0.866150 -0.075113 3.728645 24 28 29
-0.861537 -0.075113 3.728645 19 23 24
-0.856924 -0.075113 3.728645 19 23 24
-0.853684 -0.075234 3.734649 21 25 26
-0.853185 -0.075599 3.752778 22 26 25
-0.852682 -0.075968 3.771085 24 28 27
-0.848016 -0.075968 3.771085 27 31 30
-0.840617 -0.075722 3.758861 26 31 27
-0.835967 -0.075722 3.758861 22 27 30
-0.834020 -0.075968 3.771085 27 26 31
-0.829355 -0.075968 3.771085 29 27 28
-0.827380 -0.076216 3.783388 24 26 25
-0.822700 -0.076216 3.783388 23 29 29
-0.818019 -0.076216 3.783388 25 30 34
-0.812014 -0.076092 3.777226 20 28 31
-0.808658 -0.076216 3.783388 22 30 32
-0.803977 -0.076216 3.783388 21 31 30
-0.799297 -0.076216 3.783388 20 33 39
-0.798524 -0.076591 3.801995 21 32 34
-0.796432 -0.076843 3.814502 20 32 32
-0.791713 -0.076843 3.814502 21 32 28
-0.786994 -0.076843 3.814502 25 36 30
-0.782275 -0.076843 3.814502 33 44 27
-0.777555 -0.076843 3.814502 36 50 25
-0.772836 -0.076843 3.814502 31 42 26
-0.765599 -0.076591 3.801995 20 26 24
-0.760895 -0.076591 3.801995 22 28 28
-0.756192 -0.076591 3.801995 21 27 27
-0.757699 -0.077224 3.833416 20 26 26
-0.752956 -0.077224 3.833416 20 26 26
-0.748214 -0.077224 3.833416 24 24 24
-0.742244 -0.077096 3.827091 23 23 23
-0.736295 -0.076969 3.820786 20 24 23
-0.730365 -0.076843 3.814502 20 25 19
-0.724454 -0.076716 3.808238 18 23 19
-0.716215 -0.076340 3.789570 18 22 21
-0.710366 -0.076216 3.783388 23 28 24
-0.705685 -0.076216 3.783388 23 29 27
-0.702150 -0.076340 3.789570 26 27 29
-0.714986 -0.078258 3.884786 28 24 23
-0.719826 -0.079321 3.937550 22 26 25
-0.776952 -0.086200 4.278998 24 30 30
-0.712503 -0.079592 3.950966 22 30 33
-0.702825 -0.079053 3.924225 17 24 30
-0.696792 -0.078919 3.917596 17 22 26
-0.691945 -0.078919 3.917596 18 22 25
-0.687098 -0.078919 3.917596 17 22 18
-0.682252 -0.078919 3.917596 17 23 19
-0.675124 -0.078654 3.904406 21 26 29
-0.670294 -0.078654 3.904406 18 28 27
-0.664345 -0.078522 3.897844 20 25 29
-0.657314 -0.078258 3.884786 21 27 27
-0.651416 -0.078128 3.878289 28 28 30
-0.646618 -0.078128 3.878289 48 28 29
-0.602670 -0.078654 3.904406 29 24 21
-0.636410 -0.083728 4.156303 30 24 26
-0.635826 -0.084333 4.186312 27 25 26
-0.630647 -0.084333 4.186312 22 24 21
-0.630017 -0.084946 4.216758 16 20 21
-0.627080 -0.085256 4.232148 16 21 24
-0.621844 -0.085256 4.232148 16 21 24
-0.616609 -0.085256 4.232148 15 20 23
-0.603662 -0.084181 4.178770 16 20 23
-1.082125 -0.156255 7.756578 16 20 23
-0.528314 -0.076969 3.820786 16 20 23
-0.522726 -0.076843 3.814502 18 22 25
-0.518860 -0.076969 3.820786 19 24 28
-1.186611 -0.177644 8.818316 19 27 30
-1.175702 -0.177644 8.818316 21 30 35
-1.164792 -0.177644 8.818316 29 43 44
-1.162725 -0.179005 8.885889 32 43 45
-1.499326 -0.077475 4.097557 31 32 34
-1.460707 -0.075736 4.005556 32 36 37
-1.438362 -0.074831 3.957708 31 37 37
-1.404701 -0.073330 3.878289 33 39 39
-1.376878 -0.072124 3.814502 39 39 41
-1.349956 -0.070956 3.752778 44 42 45
-1.336661 -0.070500 3.728645 55 57 56
-1.323537 -0.070050 3.704819 95 103 105
-1.306432 -0.069385 3.669647 133 130 111
-1.295741 -0.069057 3.652310 135 133 112
-1.287169 -0.068840 3.640843 140 135 115
-1.282665 -0.068840 3.640843 141 136 116
-1.278160 -0.068840 3.640843 139 134 114
-1.273656 -0.068840 3.640843 141 136 116
-1.269152 -0.068840 3.640843 141 137 110
-1.262666 -0.068732 3.635136 139 137 114
-1.258168 -0.068732 3.635136 139 134 114
-1.255639 -0.068840 3.640843 148 143 123
-1.251135 -0.068840 3.640843 144 139 119
-1.246631 -0.068840 3.640843 141 137 110
-1.240180 -0.068732 3.635136 143 132 114
-1.233749 -0.068625 3.629448 142 130 114
-1.227338 -0.068517 3.623777 135 128 109
-1.222855 -0.068517 3.623777 137 130 111
-1.218372 -0.068517 3.623777 144 139 119
-1.213889 -0.068517 3.623777 144 139 119
-1.209405 -0.068517 3.623777 142 136 114
-1.204922 -0.068517 3.623777 141 133 112
-1.200439 -0.068517 3.623777 144 142 119
-1.197828 -0.068625 3.629448 142 137 117
-1.193337 -0.068625 3.629448 141 135 111
-1.190711 -0.068732 3.635136 147 140 114
-1.188076 -0.068840 3.640843 141 131 106
-1.183571 -0.068840 3.640843 143 137 115
-1.179067 -0.068840 3.640843 143 132 112
-1.172722 -0.068732 3.635136 137 129 110
-1.168225 -0.068732 3.635136 145 129 113
-1.165555 -0.068840 3.640843 143 130 113
-1.161050 -0.068840 3.640843 142 136 110
-1.154733 -0.068732 3.635136 141 135 111
-1.148436 -0.068625 3.629448 137 130 104
-1.143946 -0.068625 3.629448 141 131 104
-1.139456 -0.068625 3.629448 138 131 103
-1.134966 -0.068625 3.629448 139 129 104
-1.130476 -0.068625 3.629448 136 130 104
-1.125985 -0.068625 3.629448 137 127 100
-1.119743 -0.068517 3.623777 140 125 102
-1.115260 -0.068517 3.623777 140 129 107
-1.110777 -0.068517 3.623777 136 124 100
-1.106294 -0.068517 3.623777 139 127 101
-1.101810 -0.068517 3.623777 143 132 104
-1.097327 -0.068517 3.623777 142 132 105
-1.094554 -0.068625 3.629448 145 133 107
-1.090064 -0.068625 3.629448 146 137 108
-1.085574 -0.068625 3.629448 144 140 105
-1.081084 -0.068625 3.629448 143 136 107
-1.078281 -0.068732 3.635136 148 138 111
-1.073784 -0.068732 3.635136 147 138 109
-1.067614 -0.068625 3.629448 143 132 104
-1.061462 -0.068517 3.623777 141 129 105
-1.056979 -0.068517 3.623777 142 127 106
-1.052496 -0.068517 3.623777 138 126 100
-1.048013 -0.068517 3.623777 134 122 98
-1.043530 -0.068517 3.623777 142 131 103
-1.039047 -0.068517 3.623777 144 137 108
-1.034564 -0.068517 3.623777 140 128 102
-1.030081 -0.068517 3.623777 139 129 104
-1.025597 -0.068517 3.623777 138 126 100
-1.021114 -0.068517 3.623777 131 119 93
-1.016631 -0.068517 3.623777 131 119 93
-1.012148 -0.068517 3.623777 126 116 91
-1.007665 -0.068517 3.623777 134 122 96
-1.003182 -0.068517 3.623777 139 125 99
-1.000262 -0.068625 3.629448 137 123 97
-0.997332 -0.068732 3.635136 129 119 94
-0.992835 -0.068732 3.635136 126 114 88
-0.988338 -0.068732 3.635136 131 117 90
-0.985385 -0.068840 3.640843 133 119 92
-0.982423 -0.068948 3.646568 130 115 92
-0.979452 -0.069057 3.652310 130 119 91
-0.976471 -0.069166 3.658071 135 121 92
-0.978117 -0.069605 3.681297 123 114 97
-0.979783 -0.070050 3.704819 116 108 97
-0.976760 -0.070162 3.710747 104 99 95
-0.972170 -0.070162 3.710747 84 93 92
-0.969130 -0.070274 3.716694 66 75 80
-0.964531 -0.070274 3.716694 52 61 70
-0.959933 -0.070274 3.716694 44 50 62
-0.956869 -0.070387 3.722660 39 43 54
-0.952263 -0.070387 3.722660 34 38 49
-0.947658 -0.070387 3.722660 31 34 39
-0.944569 -0.070500 3.728645 30 33 38
-0.941469 -0.070614 3.734649 29 33 36
-0.936849 -0.070614 3.734649 29 33 32
-0.932229 -0.070614 3.734649 28 32 31
-0.929105 -0.070728 3.740673 31 35 34
-0.924477 -0.070728 3.740673 35 41 31
-0.918368 -0.070614 3.734649 35 40 33
-0.913748 -0.070614 3.734649 36 41 35
-0.907666 -0.070500 3.728645 35 41 31
-0.903053 -0.070500 3.728645 39 41 36
-0.896998 -0.070387 3.722660 38 40 37
-0.890962 -0.070274 3.716694 32 32 30
-0.886364 -0.070274 3.716694 32 32 32
-0.880355 -0.070162 3.710747 31 31 33
-0.874366 -0.070050 3.704819 28 27 32
-0.869782 -0.070050 3.704819 23 26 35
-0.866583 -0.070162 3.710747 24 27 32
-0.861992 -0.070162 3.710747 21 25 26
-0.857402 -0.070162 3.710747 25 26 30
-0.854178 -0.070274 3.716694 29 31 26
-0.850943 -0.070387 3.722660 32 34 29
-0.849064 -0.070614 3.734649 32 34 33
-0.848543 -0.070956 3.752778 31 36 32
-0.846640 -0.071187 3.764963 30 35 29
-0.840617 -0.071071 3.758861 28 33 26
-0.835967 -0.071071 3.758861 30 29 25
-0.834020 -0.071303 3.771085 32 28 29
-0.829355 -0.071303 3.771085 26 30 29
-0.824690 -0.071303 3.771085 28 33 36
-0.821360 -0.071419 3.777226 27 32 35
-0.818019 -0.071535 3.783388 28 34 30
-0.812014 -0.071419 3.777226 30 41 27
-0.808658 -0.071535 3.783388 30 41 27
-0.803977 -0.071535 3.783388 28 40 28
-0.799297 -0.071535 3.783388 31 39 28
-0.795915 -0.071652 3.789570 27 33 29
-0.796432 -0.072124 3.814502 26 32 30
-0.791713 -0.072124 3.814502 22 32 33
-0.786994 -0.072124 3.814502 22 32 34
-0.783563 -0.072242 3.820786 21 30 35
-0.778836 -0.072242 3.820786 22 31 28
-0.772836 -0.072124 3.814502 21 27 27
-0.768117 -0.072124 3.814502 21 26 29
-0.763398 -0.072124 3.814502 18 27 26
-0.819320 -0.077888 4.119391 21 30 29
-0.815672 -0.078027 4.126720 19 25 25
-0.810567 -0.078027 4.126720 22 28 28
-0.802605 -0.077750 4.112087 28 30 27
-0.791902 -0.077203 4.083128 28 24 25
-0.762681 -0.074831 3.957708 26 26 28
-0.746322 -0.073699 3.897844 19 25 25
-0.726841 -0.072242 3.820786 15 21 21
-0.719743 -0.072005 3.808238 20 24 25
-0.713859 -0.071887 3.801995 19 25 21
-0.724598 -0.073452 3.884786 22 28 24
-0.730809 -0.074577 3.944247 22 28 24
-0.723469 -0.074324 3.930876 26 26 18
-0.721050 -0.074577 3.944247 22 24 23
-0.717390 -0.074704 3.950966 26 24 25
-0.712503 -0.074704 3.950966 29 28 24
-0.704017 -0.074324 3.930876 27 26 24
-0.697971 -0.074198 3.924225 29 24 28
-0.691945 -0.074073 3.917596 30 24 28
-0.687098 -0.074073 3.917596 21 21 21
-0.682252 -0.074073 3.917596 19 23 24
-0.677405 -0.074073 3.917596 18 28 27
-0.670294 -0.073823 3.904406 17 25 28
-0.665464 -0.073823 3.904406 16 25 22
-0.657314 -0.073452 3.884786 34 24 25
-0.651416 -0.073330 3.878289 47 29 27
-0.646618 -0.073330 3.878289 51 27 27
-0.609552 -0.074073 3.917596 28 22 24
-0.602670 -0.073823 3.904406 23 23 23
-0.599859 -0.074073 3.917596 19 23 22
-0.635826 -0.079154 4.186312 17 21 22
-0.634080 -0.079585 4.209105 20 29 26
-0.632316 -0.080020 4.232148 29 40 44
-0.627080 -0.080020 4.232148 18 26 29
-0.621844 -0.080020 4.232148 15 20 24
-0.616609 -0.080020 4.232148 17 21 24
-0.603662 -0.079011 4.178770 17 21 20
-1.129806 -0.149153 7.888493 16 20 21
-1.120047 -0.149153 7.888493 16 20 23
-1.110288 -0.149153 7.888493 16 20 21
-1.082125 -0.146659 7.756578 16 20 21
-1.047994 -0.143304 7.579141 16 20 23
-0.527935 -0.072842 3.852520 18 21 26
-1.204937 -0.169309 8.954506 18 28 30
-1.175702 -0.166734 8.818316 33 43 45
-1.164792 -0.166734 8.818316 32 42 52
-1.171703 -0.169309 8.954506 27 35 38
-1.499326 -0.072406 4.097557 32 33 37
-1.460707 -0.070780 4.005556 33 37 40
-1.416605 -0.068877 3.897844 31 36 39
-1.393053 -0.067963 3.846131 36 37 39
-1.370117 -0.067073 3.795773 40 38 41
-1.347775 -0.066207 3.746716 41 42 44
-1.334516 -0.065782 3.722660 51 55 58
-1.319322 -0.065258 3.693021 93 101 104
-1.302311 -0.064640 3.658071 132 129 114
-1.291673 -0.064336 3.640843 136 133 114
-1.285151 -0.064235 3.635136 141 136 116
-1.280654 -0.064235 3.635136 141 136 116
-1.276157 -0.064235 3.635136 142 137 117
-1.271660 -0.064235 3.635136 141 138 119
-1.267163 -0.064235 3.635136 142 133 118
-1.258720 -0.064034 3.623777 144 133 113
-1.254237 -0.064034 3.623777 140 135 115
-1.251709 -0.064134 3.629448 148 143 123
-1.247219 -0.064134 3.629448 144 139 119
-1.242729 -0.064134 3.629448 140 140 116
-1.238239 -0.064134 3.629448 142 135 117
-1.231821 -0.064034 3.623777 139 132 113
-1.227338 -0.064034 3.623777 137 131 109
-1.222855 -0.064034 3.623777 139 132 113
-1.218372 -0.064034 3.623777 144 139 119
-1.211995 -0.063934 3.618123 144 139 119
-1.209405 -0.064034 3.623777 146 140 118
-1.204922 -0.064034 3.623777 141 133 112
-1.200439 -0.064034 3.623777 142 140 117
-1.195956 -0.064034 3.623777 144 140 113
-1.191473 -0.064034 3.623777 142 136 114
-1.186990 -0.064034 3.623777 146 138 119
-1.182507 -0.064034 3.623777 145 134 114
-1.178023 -0.064034 3.623777 143 136 117
-1.175377 -0.064134 3.629448 143 133 108
-1.170887 -0.064134 3.629448 139 128 110
-1.166397 -0.064134 3.629448 143 130 111
-1.160091 -0.064034 3.623777 140 134 108
-1.155608 -0.064034 3.623777 140 139 108
-1.151125 -0.064034 3.623777 142 138 113
-1.146642 -0.064034 3.623777 137 130 111
-1.142159 -0.064034 3.623777 139 133 111
-1.137675 -0.064034 3.623777 139 131 108
-1.133192 -0.064034 3.623777 139 128 106
-1.128709 -0.064034 3.623777 139 133 111
-1.124226 -0.064034 3.623777 138 127 105
-1.119743 -0.064034 3.623777 141 126 107
-1.115260 -0.064034 3.623777 141 130 110
-1.110777 -0.064034 3.623777 138 126 102
-1.106294 -0.064034 3.623777 138 126 100
-1.101810 -0.064034 3.623777 140 129 101
-1.097327 -0.064034 3.623777 142 132 105
-1.094554 -0.064134 3.629448 143 131 105
-1.090064 -0.064134 3.629448 145 136 107
-1.085574 -0.064134 3.629448 144 139 109
-1.081084 -0.064134 3.629448 140 133 107
-1.076594 -0.064134 3.629448 144 133 111
-1.072104 -0.064134 3.629448 145 135 108
-1.065946 -0.064034 3.623777 142 131 103
-1.061462 -0.064034 3.623777 142 131 103
-1.056979 -0.064034 3.623777 141 127 98
-1.052496 -0.064034 3.623777 139 127 101
-1.048013 -0.064034 3.623777 134 122 98
-1.043530 -0.064034 3.623777 142 131 103
-1.039047 -0.064034 3.623777 144 137 111
-1.034564 -0.064034 3.623777 139 127 101
-1.030081 -0.064034 3.623777 141 132 103
-1.025597 -0.064034 3.623777 142 130 104
-1.021114 -0.064034 3.623777 137 125 99
-1.016631 -0.064034 3.623777 134 122 96
-1.012148 -0.064034 3.623777 128 118 93
-1.007665 -0.064034 3.623777 131 119 93
-1.003182 -0.064034 3.623777 135 121 95
-1.000262 -0.064134 3.629448 138 124 97
-0.997332 -0.064235 3.635136 133 119 92
-0.992835 -0.064235 3.635136 126 114 88
-0.988338 -0.064235 3.635136 128 118 93
-0.985385 -0.064336 3.640843 122 115 96
-0.983970 -0.064538 3.652310 107 105 93
-0.980997 -0.064640 3.658071 92 91 97
-0.982671 -0.065051 3.681297 75 82 92
-0.982797 -0.065362 3.698911 61 69 82
-0.982924 -0.065676 3.716694 52 56 67
-0.978326 -0.065676 3.716694 42 49 55
-0.975291 -0.065782 3.722660 38 45 55
-0.970685 -0.065782 3.722660 32 39 45
-0.967633 -0.065887 3.728645 30 38 41
-0.963020 -0.065887 3.728645 30 35 39
-0.958407 -0.065887 3.728645 30 34 37
-0.955330 -0.065993 3.734649 30 34 35
-0.950710 -0.065993 3.734649 32 37 33
-0.946090 -0.065993 3.734649 34 39 33
-0.941469 -0.065993 3.734649 36 41 35
-0.936849 -0.065993 3.734649 37 42 35
-0.932229 -0.065993 3.734649 38 43 36
-0.927608 -0.065993 3.734649 38 43 36
-0.922988 -0.065993 3.734649 34 43 38
-0.916891 -0.065887 3.728645 41 47 33
-0.912279 -0.065887 3.728645 42 43 35
-0.906209 -0.065782 3.722660 35 41 37
-0.900158 -0.065676 3.716694 38 40 35
-0.895560 -0.065676 3.716694 37 33 30
-0.890962 -0.065676 3.716694 35 30 27
-0.884946 -0.065571 3.710747 35 30 27
-0.877547 -0.065362 3.698911 35 29 29
-0.872971 -0.065362 3.698911 35 29 29
-0.867012 -0.065258 3.693021 37 28 29
-0.865199 -0.065466 3.704819 37 28 29
-0.861992 -0.065571 3.710747 35 26 27
-0.857402 -0.065571 3.710747 34 29 26
-0.854178 -0.065676 3.716694 36 31 27
-0.850943 -0.065782 3.722660 34 28 28
-0.853185 -0.066314 3.752778 33 27 29
-0.852682 -0.066637 3.771085 34 28 28
-0.848016 -0.066637 3.771085 34 30 27
-0.843351 -0.066637 3.771085 32 26 28
-0.840052 -0.066746 3.777226 32 27 31
-0.835379 -0.066746 3.777226 32 33 37
-0.830706 -0.066746 3.777226 26 31 35
-0.826033 -0.066746 3.777226 26 32 32
-0.822700 -0.066855 3.783388 25 31 31
-0.818019 -0.066855 3.783388 22 30 33
-0.813339 -0.066855 3.783388 20 30 31
-0.808658 -0.066855 3.783388 22 31 30
-0.802668 -0.066746 3.777226 27 32 28
-0.797995 -0.066746 3.777226 30 35 29
-0.795915 -0.066964 3.789570 32 37 31
-0.796432 -0.067404 3.814502 28 33 27
-0.799604 -0.068076 3.852520 28 30 29
-0.849897 -0.072792 4.119391 35 26 29
-0.846304 -0.072922 4.126720 26 26 28
-0.841199 -0.072922 4.126720 19 28 25
-0.836093 -0.072922 4.126720 21 27 27
-0.829512 -0.072792 4.119391 20 25 28
-0.825883 -0.072922 4.126720 19 24 28
-0.822241 -0.073052 4.134077 21 26 30
-0.817126 -0.073052 4.134077 18 26 29
-0.812012 -0.073052 4.134077 20 30 32
-0.804031 -0.072792 4.119391 19 31 31
-0.794700 -0.072406 4.097557 22 28 28
-0.774577 -0.071026 4.019440 30 26 27
-0.757785 -0.069935 3.957708 28 24 25
-0.751606 -0.069816 3.950966 23 23 23
-0.751841 -0.070295 3.978074 18 22 21
-0.748203 -0.070416 3.984909 20 22 21
-0.741998 -0.070295 3.978074 22 24 23
-0.733303 -0.069935 3.957708 25 27 26
-0.725930 -0.069697 3.944247 24 24 22
-0.721050 -0.069697 3.944247 30 25 21
-0.716170 -0.069697 3.944247 30 24 24
-0.710083 -0.069579 3.937550 24 26 23
-0.704017 -0.069461 3.930876 28 32 31
-0.699154 -0.069461 3.930876 33 38 41
-0.694291 -0.069461 3.930876 21 29 32
-0.690598 -0.069579 3.937550 17 22 25
-0.684564 -0.069461 3.930876 19 24 27
-0.677405 -0.069226 3.917596 18 26 29
-0.672558 -0.069226 3.917596 19 25 25
-0.665464 -0.068993 3.904406 31 25 25
-0.657314 -0.068646 3.884786 43 27 27
-0.646015 -0.067963 3.846131 33 24 25
-0.641257 -0.067963 3.846131 22 21 19
-1.234111 -0.131775 7.457289 17 23 21
-1.236816 -0.133058 7.529925 18 23 19
-1.227501 -0.133058 7.529925 22 27 23
-1.222153 -0.133492 7.554453 23 29 25
-1.220760 -0.134367 7.603990 16 20 19
-1.211353 -0.134367 7.603990 19 20 22
-1.201946 -0.134367 7.603990 19 20 24
-0.629281 -0.070903 4.012486 17 22 25
-0.614745 -0.069816 3.950966 17 23 23
-0.604706 -0.069226 3.917596 16 25 24
-0.602915 -0.069579 3.937550 17 26 25
-0.635826 -0.073975 4.186312 23 34 36
-0.637552 -0.074784 4.232148 36 53 60
-0.633472 -0.074921 4.239885 26 35 42
-0.631691 -0.075334 4.263267 15 23 26
-0.632228 -0.076033 4.302814 20 25 29
-1.161173 -0.140831 7.969818 18 22 25
-1.147371 -0.140349 7.942524 17 21 20
-1.137545 -0.140349 7.942524 16 20 21
-1.127719 -0.140349 7.942524 16 20 23
-1.110288 -0.139394 7.888493 16 20 21
-1.096798 -0.138922 7.861753 16 20 21
-1.072529 -0.137063 7.756578 16 20 23
-1.175702 -0.155825 8.818316 18 26 29
-1.164792 -0.155825 8.818316 26 31 34
-1.171703 -0.158231 8.954506 26 32 30
-1.470868 -0.066283 4.033421 35 36 38
-1.400133 -0.063310 3.852520 35 36 38
-1.381597 -0.062685 3.814502 37 38 40
-1.358996 -0.061871 3.764963 37 38 40
-1.341274 -0.061274 3.728645 42 42 44
-1.330245 -0.060980 3.710747 49 49 49
-1.317224 -0.060593 3.687150 85 93 95
-1.298215 -0.059926 3.646568 132 129 114
-1.289649 -0.059738 3.635136 139 136 117
-1.283140 -0.059644 3.629448 141 138 121
-1.276652 -0.059551 3.623777 138 135 118
-1.272169 -0.059551 3.623777 139 137 116
-1.267686 -0.059551 3.623777 144 139 119
-1.263203 -0.059551 3.623777 143 138 119
-1.258720 -0.059551 3.623777 139 132 114
-1.254237 -0.059551 3.623777 140 137 118
-1.249753 -0.059551 3.623777 144 141 122
-1.245270 -0.059551 3.623777 143 141 120
-1.240787 -0.059551 3.623777 143 139 112
-1.236304 -0.059551 3.623777 141 136 114
-1.231821 -0.059551 3.623777 138 131 112
-1.227338 -0.059551 3.623777 135 130 110
-1.220947 -0.059458 3.618123 141 136 116
-1.218372 -0.059551 3.623777 144 139 119
-1.211995 -0.059458 3.618123 141 136 116
-1.209405 -0.059551 3.623777 141 136 114
-1.204922 -0.059551 3.623777 138 133 111
-1.200439 -0.059551 3.623777 146 141 119
-1.195956 -0.059551 3.623777 144 139 117
-1.191473 -0.059551 3.623777 141 136 114
-1.186990 -0.059551 3.623777 143 138 116
-1.182507 -0.059551 3.623777 142 137 115
-1.178023 -0.059551 3.623777 142 136 114
-1.173540 -0.059551 3.623777 142 134 113
-1.169057 -0.059551 3.623777 138 130 107
-1.164574 -0.059551 3.623777 142 134 113
-1.160091 -0.059551 3.623777 141 133 112
-1.155608 -0.059551 3.623777 144 138 114
-1.151125 -0.059551 3.623777 141 135 111
-1.146642 -0.059551 3.623777 137 131 109
-1.142159 -0.059551 3.623777 140 133 114
-1.137675 -0.059551 3.623777 142 131 111
-1.133192 -0.059551 3.623777 139 128 108
-1.128709 -0.059551 3.623777 139 134 112
-1.124226 -0.059551 3.623777 137 129 110
-1.119743 -0.059551 3.623777 141 126 103
-1.115260 -0.059551 3.623777 142 130 108
-1.109044 -0.059458 3.618123 138 131 105
-1.104568 -0.059458 3.618123 142 127 106
-1.101810 -0.059551 3.623777 140 128 104
-1.097327 -0.059551 3.623777 142 132 105
-1.092844 -0.059551 3.623777 143 131 105
-1.090064 -0.059644 3.629448 146 136 109
-1.085574 -0.059644 3.629448 141 138 107
-1.081084 -0.059644 3.629448 139 132 104
-1.074912 -0.059551 3.623777 142 132 107
-1.070429 -0.059551 3.623777 142 133 104
-1.065946 -0.059551 3.623777 142 131 101
-1.061462 -0.059551 3.623777 143 132 104
-1.055330 -0.059458 3.618123 141 129 103
-1.052496 -0.059551 3.623777 139 127 101
-1.046378 -0.059458 3.618123 135 123 97
-1.043530 -0.059551 3.623777 143 131 105
-1.039047 -0.059551 3.623777 145 138 110
-1.034564 -0.059551 3.623777 138 128 103
-1.030081 -0.059551 3.623777 143 132 104
-1.025597 -0.059551 3.623777 141 133 97
-1.021114 -0.059551 3.623777 137 128 97
-1.018222 -0.059644 3.629448 131 122 93
-1.013732 -0.059644 3.629448 130 118 92
-1.009242 -0.059644 3.629448 129 117 91
-1.004752 -0.059644 3.629448 129 121 98
-1.000262 -0.059644 3.629448 124 114 102
-0.997332 -0.059738 3.635136 109 106 101
-0.992835 -0.059738 3.635136 90 93 100
-0.989889 -0.059832 3.640843 69 78 87
-0.986935 -0.059926 3.646568 53 63 73
-0.985522 -0.060115 3.658071 44 51 67
-0.982547 -0.060210 3.663850 43 46 61
-0.987373 -0.060786 3.698911 33 40 46
-0.987522 -0.061078 3.716694 34 39 43
-0.982924 -0.061078 3.716694 33 38 41
-0.979896 -0.061176 3.722660 34 38 41
-0.976858 -0.061274 3.728645 32 36 37
-0.972246 -0.061274 3.728645 31 35 34
-0.967633 -0.061274 3.728645 33 37 36
-0.963020 -0.061274 3.728645 36 41 37
-0.959950 -0.061373 3.734649 40 45 38
-0.955330 -0.061373 3.734649 43 49 39
-0.950710 -0.061373 3.734649 42 47 40
-0.946090 -0.061373 3.734649 44 49 43
-0.941469 -0.061373 3.734649 45 50 44
-0.936849 -0.061373 3.734649 42 47 41
-0.929236 -0.061176 3.722660 43 44 39
-0.924631 -0.061176 3.722660 43 45 40
-0.918551 -0.061078 3.716694 37 42 35
-0.913953 -0.061078 3.716694 38 45 37
-0.909355 -0.061078 3.716694 40 41 35
-0.904756 -0.061078 3.716694 36 32 29
-0.900158 -0.061078 3.716694 35 29 31
-0.895560 -0.061078 3.716694 35 26 27
-0.889537 -0.060980 3.710747 35 31 30
-0.883532 -0.060883 3.704819 37 38 32
-0.877547 -0.060786 3.698911 38 42 27
-0.871581 -0.060689 3.693021 39 46 30
-0.862890 -0.060400 3.675463 37 45 32
-0.862443 -0.060689 3.693021 38 41 32
-0.860615 -0.060883 3.704819 30 31 23
-0.861537 -0.061274 3.728645 20 24 23
-0.856924 -0.061274 3.728645 31 36 30
-0.857828 -0.061671 3.752778 34 39 33
-0.857347 -0.061972 3.771085 32 34 33
-0.855464 -0.062174 3.783388 32 28 29
-0.852173 -0.062276 3.789570 33 27 29
-0.846103 -0.062174 3.783388 33 27 27
-0.841422 -0.062174 3.783388 31 25 29
-0.836741 -0.062174 3.783388 31 26 32
-0.832061 -0.062174 3.783388 30 30 30
-0.827380 -0.062174 3.783388 33 35 34
-0.824044 -0.062276 3.789570 30 34 35
-0.819356 -0.062276 3.789570 30 34 35
-0.813339 -0.062174 3.783388 23 32 29
-0.808658 -0.062174 3.783388 21 29 31
-0.801363 -0.061972 3.771085 19 28 33
-0.792830 -0.061671 3.752778 22 30 33
-0.788187 -0.061671 3.752778 29 29 29
-0.793821 -0.062480 3.801995 35 26 29
-0.799604 -0.063310 3.852520 31 25 27
-0.851409 -0.067816 4.126720 33 25 23
-0.847813 -0.067937 4.134077 27 25 26
-0.842698 -0.067937 4.134077 21 27 27
-0.837584 -0.067937 4.134077 22 27 30
-0.832469 -0.067937 4.134077 19 24 27
-0.827355 -0.067937 4.134077 18 23 26
-0.822241 -0.067937 4.134077 21 26 29
-0.817126 -0.067937 4.134077 29 35 35
-0.809127 -0.067696 4.119391 28 34 34
-0.799769 -0.067337 4.097557 23 33 32
-0.783624 -0.066398 4.040448 21 30 29
-0.773237 -0.065939 4.012486 27 29 28
-0.757785 -0.065039 3.957708 25 25 23
-0.752888 -0.065039 3.957708 29 25 24
-0.751841 -0.065373 3.978074 27 23 22
-0.748203 -0.065486 3.984909 21 23 22
-0.736942 -0.064928 3.950966 18 22 21
-0.730809 -0.064818 3.944247 25 24 22
-0.725930 -0.064818 3.944247 30 26 25
-0.721050 -0.064818 3.944247 27 23 24
-0.717390 -0.064928 3.950966 23 23 23
-0.711291 -0.064818 3.944247 20 26 24
-0.705212 -0.064707 3.937550 20 26 24
-0.699154 -0.064598 3.930876 19 25 23
-0.694291 -0.064598 3.930876 19 23 22
-0.690598 -0.064707 3.937550 18 24 24
-0.685727 -0.064707 3.937550 20 26 26
-0.679701 -0.064598 3.930876 19 24 27
-0.672558 -0.064380 3.917596 23 25 24
-0.666586 -0.064271 3.910990 34 26 24
-0.654027 -0.063521 3.865362 25 21 22
-0.640702 -0.062685 3.814502 18 22 23
-0.635983 -0.062685 3.814502 20 24 25
-1.218440 -0.120993 7.362594 20 26 26
-1.224886 -0.122549 7.457289 23 27 26
-1.227501 -0.123743 7.529925 23 27 26
-1.222153 -0.124146 7.554453 20 24 23
-1.212807 -0.124146 7.554453 17 21 22
-1.203461 -0.124146 7.554453 16 20 21
-0.636447 -0.066168 4.026418 17 22 18
-0.629281 -0.065939 4.012486 26 31 25
-0.618962 -0.065373 3.978074 26 36 27
-0.609857 -0.064928 3.950966 23 34 28
-0.603940 -0.064818 3.944247 24 34 35
-0.600081 -0.064928 3.950966 16 24 26
-0.642239 -0.070060 4.263267 17 24 30
-1.201538 -0.133261 8.109150 12 22 24
-1.191506 -0.133261 8.109150 35 49 52
-1.173269 -0.132336 8.052836 20 31 37
-1.147371 -0.130523 7.942524 17 20 25
-1.137545 -0.130523 7.942524 16 20 23
-1.127719 -0.130523 7.942524 16 20 21
-1.129497 -0.131878 8.024972 15 19 18
-1.119569 -0.131878 8.024972 15 21 21
-1.113494 -0.132336 8.052836 14 22 24
-1.092613 -0.134674 8.195113 18 23 27
-1.082475 -0.134674 8.195113 25 29 30
-1.395497 -0.058350 3.839763 36 37 39
-1.377067 -0.057776 3.801995 31 40 39
